ply
format ascii 1.0
element vertex 700
property double x
property double y
property double z
property uchar red
property uchar green
property uchar blue
end_header
-0.0657659877061131 0.1546688360559613 0.3434784488986353 141 167 202
0.5750809231529841 -0.2251084097433116 1.0799652405359939 237 203 52
-0.0867478118694853 0.1619202464474868 0.3420954056964561 65 123 145
0.5986753909851432 -0.1640920891590988 0.9695129236304511 107 93 126
0.4419623844991156 0.1009028236192708 0.4333240000886698 58 91 142
0.0400873409571129 0.1514152140949514 0.3657977134615890 26 54 104
0.5268764114566999 -0.3087575222833713 1.2922656975177107 255 245 163
-0.0091344992905330 0.1607872125046810 0.3588709135675211 129 144 165
0.3312707035463957 0.1249121053384122 0.4218038156594116 221 214 136
-0.0534792553194748 0.1702237529345847 0.3524930254741842 196 170 195
0.0767432886578214 0.1557585846641286 0.3775005936579643 184 139 120
0.0767473762443362 0.1557519367557695 0.3775023257725664 184 139 120
0.5273319591836071 -0.2977904388208559 1.2941641109217694 75 61 50
0.5837626772627017 -0.1851527008557873 1.0652128748533540 36 67 111
0.1293066947802244 0.1602357443276899 0.3899339776358466 187 186 181
0.1192065591112627 0.1630337358585042 0.3881151517415931 15 63 73
0.4813815142066193 -0.3820882014909222 1.5034093682263348 83 42 36
-0.0678755458960238 0.1841797789060497 0.3554382046422677 45 80 74
0.0325829018438322 0.1815434287619280 0.3771369851629637 244 208 120
0.0222017389655522 0.1823942804117159 0.3752054091551771 193 176 106
-0.0292253928801533 0.1868680078349972 0.3645592702842210 113 102 70
-0.1067225452234075 0.1943518149747817 0.3511336722842410 183 159 147
-0.0851095316237774 0.1927685808605189 0.3558150168187361 5 64 32
-0.0480197433990788 0.1910522838353114 0.3620625710977950 12 60 44
-0.0479096490694089 0.1908845967701923 0.3617907403747231 12 60 44
-0.0999223633888622 0.1960391253694263 0.3530878959050934 22 67 72
-0.0539412441330427 0.1960374455340529 0.3636088559425978 119 122 79
-0.0415841303671208 0.1967154031274658 0.3668737572429894 208 181 78
-0.0604472089061039 0.1980102281718116 0.3626592879725055 55 66 26
0.4002160832099290 -0.4533751260344545 1.7099654107364790 49 62 71
0.0502651550359159 0.1926689455362820 0.3858066777012198 177 196 130
0.6738634853940020 0.0339435955229209 0.7415470308330169 31 50 65
-0.1112679507897416 0.2065676333187581 0.3558713833003173 11 63 87
0.0776140454364193 0.1959711215112104 0.3938532978011244 0 41 37
0.0524148092318082 0.1983409039880483 0.3891345143771106 198 211 168
0.0196249019295845 0.2059338597622949 0.3846263577680513 65 80 103
-0.0801910113428538 0.2150357010773080 0.3656859378950347 32 65 70
0.1544774293914591 0.2057135705725398 0.4135770696747679 212 230 180
-0.0378454402658299 0.2170761365838789 0.3763322768174880 241 248 206
0.0329139980830263 0.2173988940384083 0.3928660594595802 17 53 51
0.0269162517265633 0.2226386458302184 0.3933991491644229 147 182 220
0.0347118811486767 0.2278928517082537 0.3976457482179189 5 44 43
0.5112295822592963 -0.2670243050390378 1.4542279054350993 148 128 163
-0.0595633256635166 0.2344721752617735 0.3794646520016275 4 49 54
-0.1167621360054281 0.2464606684633531 0.3704336631865530 21 74 78
0.4901529929446771 -0.2882910755011317 1.5438738696773244 174 150 186
-0.1084017531271621 0.2646794997413305 0.3801376134114705 16 73 67
0.4455656837473347 -0.3692276462472261 1.7575617364099831 2 40 29
-0.1183426729251653 0.2767668798898154 0.3836594442665720 28 114 171
-0.0916536738596314 0.3031128194715886 0.4000007040858069 27 97 133
0.0352530696270097 0.0452059348980745 0.9655094032375392 13 12 28
0.2697220513623530 0.2496292571223295 0.6993475443446636 90 151 30
-0.0706089111397625 -0.0768770497611496 1.1906329265427105 95 104 147
0.1008993376510443 0.3681457525780673 0.4902766540794749 182 184 181
0.1332838329927711 0.1134049698420100 1.0395702023055606 68 120 10
0.1307739175602418 0.1261982350140132 1.0129134062713101 76 137 18
-0.0332214869553606 0.4027977163225288 0.4570324522678933 0 33 26
-0.2279434660401954 0.1198699731626945 0.9416723604761993 0 1 6
-0.2066258244402595 0.4095587796317506 0.4987434962308323 158 156 143
-0.0525925198496441 0.0117741317476968 1.3180094884685118 94 151 34
-0.0844778799200078 0.0444183045987930 1.2597508821178329 222 238 212
-0.2252149488224701 0.3746511206081966 0.5840371827455587 225 235 208
-0.0935417865920579 -0.0651570258168704 1.4973522348130852 102 168 36
-0.3437346138294433 0.2311073266024559 0.9287360313506386 51 95 20
-0.3505068962138205 0.2451929705715447 0.9009426433757514 56 100 13
-0.3298885520356756 0.1447278882295959 1.1110534266253826 79 118 35
-0.3825713870869689 0.2507541973505049 0.8981917855920099 62 97 29
-0.4186664878704761 0.3032298481536367 0.7953547892581168 68 113 8
-0.3913624052288558 0.2354759055223266 0.9344415298374997 74 108 32
-0.4362830592387120 0.2863705749011362 0.8385999964447571 78 116 29
-0.4003147224267142 0.1517618641958119 1.1179978836947249 55 98 18
-0.4723266113418709 0.2827967633785926 0.8555400702352370 56 112 5
-0.4065629332889548 0.0829128147818813 1.2714270385203508 42 89 0
-0.4861117419111025 0.2236612783743557 0.9880969398514058 80 118 43
-0.4884086202915519 0.2230996704251393 0.9913503530785778 175 201 162
-0.4881589144887249 0.2183175311117508 1.0003764545540985 77 121 34
-0.4538146502660381 0.1171254972989053 1.2103563359258198 59 92 21
0.6844959577308536 -0.0945812950294717 0.4641590296619014 150 109 165
0.5689762362428546 -0.3055728893575183 0.9959244012629779 103 93 156
-0.0712456263957500 0.0979847691650851 0.3174277867054426 75 68 136
0.5658606347614841 -0.3007108047116152 1.0105144502203722 213 196 214
0.1832380863146619 0.0525392685436933 0.3544018067988499 0 84 144
0.1025413694611407 0.0682194588138150 0.3439685718616707 208 133 140
0.1689626120646160 0.0671313517214518 0.3589120971011921 4 62 112
0.1177682488664742 0.0773770652637409 0.3524011538869427 21 74 106
0.3889638004795120 0.0397534199600267 0.4000792881181511 147 114 121
0.6016252918539122 0.0156992623589212 0.4392388659915274 162 148 122
0.4563886281364282 -0.4817133937140497 1.5282584241075887 27 49 63
0.5913626787995547 -0.2192632029775391 0.9495933711930693 74 57 65
0.6358862740892289 0.0164459337813052 0.4446014878285220 4 26 23
0.3909021067736950 0.0661290294269588 0.4094683893188518 21 67 83
-0.0591280705945446 0.1373975689255873 0.3370677027423303 40 78 91
0.0136859128361485 0.1321741312577319 0.3535079164353187 76 77 97
0.5279986739451146 -0.3119673207873592 1.2346392477729398 51 63 63
0.0854907543787272 0.1288153288015323 0.3668592987127444 3 62 106
0.0670556499364444 0.1307177014343228 0.3636524743355968 34 72 119
-0.0588497226265137 0.1505558115072933 0.3431020002490252 35 90 120
0.5946977725042925 -0.1878018297601059 0.9825557822960987 96 90 74
0.0397437646595476 0.1426519595336670 0.3615885953221014 160 162 185
-0.0151649523649027 0.1493801682809822 0.3526633341099825 216 137 143
0.1461256169514400 0.1376545886325421 0.3835583887984122 243 239 192
0.5639000538551757 -0.2300251123632822 1.1294388561569839 53 72 87
0.0653943420245461 0.1529458177760133 0.3724150529933275 22 64 80
0.1268863696647468 0.1484960559111667 0.3826917731476864 56 69 51
-0.0191221167208924 0.1661341415957189 0.3604780489056857 15 81 79
0.5207506974876642 -0.3046396426758810 1.3176826557587138 85 64 97
0.5161032987695804 -0.3140203708993285 1.3421969054260070 71 67 81
-0.0565845005856960 0.1829287134539967 0.3562197986548939 31 66 94
-0.0181703532881947 0.1820579408750028 0.3656433602805132 255 247 98
0.0050576201679909 0.1814881559310688 0.3712649008696997 89 77 65
0.0546306189657456 0.1818625241903428 0.3817214476006741 0 66 37
-0.0941955946862505 0.2023978236898043 0.3580740382805042 15 71 96
0.0429916050363098 0.1995694160198145 0.3871109699832802 7 72 110
0.0613678986251515 0.2002903431951486 0.3925547325013525 0 39 33
-0.0705186818006923 0.2132621263111419 0.3683932831917454 39 85 108
0.0361956478662206 0.2110082574595332 0.3902584984561161 237 209 205
-0.0144551762678264 0.2139219889108838 0.3798940423479622 203 208 167
0.0709542951140545 0.2138246311838337 0.3999931497837327 2 47 18
-0.0026986327351721 0.2212157801312587 0.3849904627634008 45 92 136
0.5261616170761632 -0.2473657620266422 1.3881400463903963 10 21 23
-0.0260118305437945 0.2335886841241223 0.3866002941419937 6 55 69
0.0016081736983387 0.2364975828290866 0.3933697147288667 14 55 39
0.0370373877013230 0.2364925187243813 0.4018968490076051 46 162 127
-0.0335935317789155 0.2413081259839281 0.3873901738611198 184 240 227
-0.0337197084667780 0.2411175504928428 0.3875413345400992 184 240 227
-0.0254667502543758 0.2441899547945854 0.3903372897340692 2 81 124
0.5026995834859124 -0.2847051678876718 1.5360820513372160 188 152 190
-0.0999175647902767 0.2511826861535590 0.3766488961661679 246 254 243
-0.0999334796270724 0.2511127101885211 0.3766398928180119 246 254 243
-0.0333376731356485 0.2520255543356270 0.3924031334046723 204 245 247
-0.1080141422803329 0.2541100296660694 0.3765285975870040 15 57 55
0.5385584687909448 -0.1541013840429482 1.4269419064148108 34 83 100
-0.0994359106801681 0.2887473451785824 0.3927326712680073 5 39 49
-0.1600829031865794 0.0547200162876742 0.9690363734560761 95 116 163
-0.1921246070636670 0.4200553652673217 0.4782710806788394 185 192 185
-0.2059829922502838 0.4019211094811719 0.5151765342871404 189 190 192
-0.2158894100667811 0.3996001056606243 0.5182503082261032 181 182 186
-0.1275476815985903 0.0801479539400989 1.1921833177912213 73 125 17
-0.1195673565248986 -0.0416316937337822 1.4548007066745565 109 164 45
-0.3847297572149439 0.2384306290980916 0.9211451724128450 216 225 208
-0.4525479685686351 0.1192334375318913 1.2051724672014579 62 101 20
-0.0695423543752929 0.0890318760116977 0.3140690726119726 255 229 221
0.5465179414357740 -0.3579318627134125 1.0929618083184109 255 239 170
-0.0189128364518871 0.0807963803681533 0.3237090866179404 255 231 161
-0.0634925973746832 0.0944567317040488 0.3178623313923982 112 81 112
-0.0592797775607702 0.1015990306277516 0.3221175397101882 164 162 167
0.2796738502321355 0.0444097112329337 0.3788913632658670 0 71 105
0.4384052336169330 0.0181353850953090 0.3983263521787348 11 65 109
-0.0269261419980856 0.1057171135357067 0.3313382690773310 164 161 172
0.4912186436408960 -0.4206142670794595 1.3510308466447079 99 94 126
-0.0368163744529069 0.1120647918862660 0.3333548424367904 17 66 106
0.2550687268077019 0.0683154985112942 0.3795024905366756 196 201 205
-0.0166907141379159 0.1202942410870182 0.3398928021849147 53 69 94
0.5397248845777501 -0.3091787193996272 1.1854180830144034 180 151 147
-0.0443485495846349 0.1349613180232267 0.3389908750437169 33 57 91
0.0955837033563034 0.1338324135548024 0.3713954331829850 175 179 156
0.0647326956912307 0.1374843257358523 0.3656266664456911 39 66 83
-0.0496793219293102 0.1527047423887471 0.3452676725399904 91 105 131
0.5593584677514700 -0.2547816037809104 1.1423672360815560 219 178 124
0.5062633609373965 -0.3424052158261319 1.3824651361092615 223 206 162
0.5384076776235470 -0.2722235448072247 1.2420036990233021 175 169 169
0.0219573602410460 0.1625592969178434 0.3674364440384434 62 86 114
-0.0728696636740669 0.1755748341396322 0.3502834084086241 42 100 114
0.5742662634980916 -0.2027656819730585 1.1138331025922488 33 56 124
0.0827615324508722 0.1650356593790488 0.3808986304877701 0 55 30
-0.0975261268014114 0.1871728351806009 0.3491795494097997 91 101 74
-0.0012946441933804 0.1904631269724236 0.3717366140329704 251 227 137
0.4513344040629184 -0.3911560101934028 1.5843346759595607 254 251 244
0.2552623283404532 0.1800351714540010 0.4287608518008877 3 42 15
-0.0078996688760047 0.2051869507625164 0.3789332131303324 17 81 80
-0.0274942200309812 0.2098545892587707 0.3695537269823204 53 107 107
-0.0930724336419247 0.2111310443950843 0.3635509483637076 26 69 104
-0.0956698335870590 0.2222848496190454 0.3645601217819081 231 231 167
0.6237113390392258 -0.0147506968834111 1.0218842482253974 36 66 92
-0.0800137165098407 0.2498091979217726 0.3805873654552555 217 254 255
-0.0800557816226359 0.2497050855161351 0.3806182592364449 217 254 255
-0.1178178671479478 0.2850447462707622 0.3874475796484407 10 36 25
0.4230403954597449 0.2703795289526449 0.6022073130727869 61 49 37
-0.1030498656814971 0.3089087941937644 0.4007729527284195 4 68 70
-0.1030284337434117 0.3089258884079823 0.4007601055797331 4 68 70
-0.1407028621084362 0.3316092251380810 0.4021374076258482 33 81 101
-0.0092551344878467 0.3081075979737993 0.6602744396879040 66 118 20
-0.1746611162462112 0.4008900061270234 0.5042501522733593 100 105 83
-0.1171132437598011 -0.0381111323311565 1.4473176974905442 104 156 29
-0.3238126590199694 0.2204481345706257 0.9474462215839274 73 111 28
-0.3523355745186153 0.2023491453905716 0.9918464357054166 65 106 28
-0.3936338226548027 0.2215536231896801 0.9617172404462678 217 232 213
-0.4251793172926551 0.1712610090569077 1.0838270061870985 45 86 10
-0.4316599866820142 0.1600445582134810 1.1117619335543942 65 102 24
-0.4776619188289518 0.2557914613682992 0.9171766535497774 78 123 32
-0.4407454879450335 0.1417533149747274 1.1535295824414937 64 101 24
-0.5042689578111875 0.2592954490993552 0.9191308688539158 221 235 200
0.0226302858390355 0.0715638366288416 0.3278001678511663 187 192 126
0.5648669399039528 -0.2693154834621634 0.9954025830331386 124 106 158
0.0126152437741951 0.0998013065706746 0.3395869063719671 2 63 118
-0.0862006628880384 0.1357381846341798 0.3305213913113435 35 78 95
0.1603903175818850 0.1281185218652494 0.3848944386194107 106 98 62
0.1610682231909898 0.1286213190834081 0.3840838548257557 106 98 62
-0.0168351180581956 0.1580560733946509 0.3561346432107056 25 65 100
-0.0414303952882812 0.1746073045894139 0.3563254586945870 14 72 73
-0.0881965963452031 0.1793353502951668 0.3459236067138381 245 202 147
-0.0344295927276565 0.1960340980648457 0.3690142754270887 246 214 71
0.1124821316881165 0.1969253791977672 0.4005053242018591 0 41 31
0.5506617525053408 -0.2002014581516997 1.2358486189415365 13 56 49
0.0037815341707144 0.2129675376753741 0.3834389949265721 192 194 155
0.5481055275518126 -0.1913037980208210 1.3130127486774741 10 60 85
0.5476411571626391 -0.1916076532189683 1.3128456960275068 10 60 85
-0.0456123093853796 0.2411573325710655 0.3843134223424974 10 71 102
-0.0130347835294553 0.2428250447393493 0.3928890092115529 58 174 173
0.0251958639636433 0.2443466516745402 0.4021347479205740 2 41 14
-0.0452332009374597 0.2528038052297570 0.3899096229984901 0 86 182
-0.0301650585531332 0.2745096350424211 0.4022663348637478 11 104 181
-0.1998848773531736 0.3655498597958414 0.5841812020972986 96 140 45
-0.1047593237460104 -0.0071456250678444 1.3744922138647593 78 144 20
-0.3710581524946839 0.2743172714330081 0.8395941576404832 220 236 210
0.0512143953103833 0.0661907113707921 0.3326398993740905 177 175 124
-0.0352093463574817 0.1233956461516938 0.3382548192701396 182 168 141
-0.0700794890546599 0.1313422533141420 0.3330038090988292 201 197 168
0.0624199071896567 0.1152427107401414 0.3559618847607401 56 72 108
0.0285062395118271 0.1248455105263377 0.3526418579643313 185 147 108
-0.0786172864396359 0.1625879334024135 0.3429255031389146 29 68 83
0.0319983310664452 0.1569334997485382 0.3634423132891890 56 67 99
0.0520092520333278 0.1684058661758636 0.3777746085484203 192 157 76
0.0237142217114119 0.1768841997284848 0.3732335420197345 187 132 67
0.4732677809901656 -0.3860874600949139 1.5455769058429116 46 46 72
-0.0751310818205184 0.1931037818320338 0.3573837089022596 227 194 87
0.0379482290995343 0.1887939220489713 0.3833902328894971 30 88 108
0.0121724120399531 0.1944429271686759 0.3811801415578953 47 73 96
0.0292444146982310 0.2088589322589272 0.3869508627110556 167 186 122
0.5597847879184463 -0.1699001973450627 1.2615822101885721 1 59 63
0.0352102839369344 0.0022972176457086 0.9118587224433476 147 150 185
-0.0220694342088641 0.2602120833927966 0.3979319091117188 5 72 41
-0.0628132823937685 -0.0665568732579525 1.1442385768487109 0 4 5
-0.3051128757245852 0.1918583075365877 0.9996829910697742 61 113 2
0.4147474739472463 -0.0008432243664229 0.3867860286171730 141 160 166
0.0851826347909463 0.0842726570421473 0.3400051405891835 3 69 103
0.5108857738402093 0.0125678481966056 0.4056181151730646 92 142 167
-0.0614296280673140 0.1152248598914071 0.3275751888708676 1 63 112
0.2612585434278038 0.0943728823743437 0.3928387217805694 8 64 77
0.1645026059394034 0.1140173557359842 0.3783697557397929 86 115 133
0.4398267890924843 -0.4862854011504469 1.6616176592766736 54 71 115
0.1844989548574924 0.1380690710453239 0.3920793002840724 247 217 59
0.5162375677188671 -0.3158905900755927 1.3279663440111247 137 104 53
-0.0457948357131507 0.2317096539911070 0.3822632186791594 20 59 88
-0.0728591797023019 0.2323114561019653 0.3788679969543607 16 54 55
-0.0731334955860269 0.2309953624173115 0.3808754178657598 17 56 55
-0.2434568683849573 0.0742936279601682 0.9883590398264683 199 197 208
0.3276524319443122 0.0136971053688476 0.3740791168829580 36 92 93
0.6850008253120494 -0.1212141519857974 0.5853286577779244 120 105 172
-0.0470809936188290 0.1084197137676106 0.3286273319893084 0 69 110
0.5055033156807035 -0.3728169609511850 1.3502511215598698 29 57 79
0.0707136814060747 0.1408954924221262 0.3678965963423043 41 113 128
-0.0207347692219238 0.1919153169179419 0.3692940545595538 211 174 59
-0.0926919902587635 0.2002787603855794 0.3562922358850204 12 65 83
-0.0932016712646001 0.2001326391913531 0.3569056399346736 12 65 83
-0.4359308379236577 0.1596519499598106 1.1142070144232337 78 127 35
0.0278595227143765 0.0885238360289348 0.3422693989561977 5 63 100
0.5019500014789076 -0.4146602568196051 1.3159156177474667 137 111 158
0.5381347525922163 -0.2947206535097853 1.2420640577461282 115 116 82
0.4741063955389750 0.2569649780769268 0.5248733004391336 0 31 25
0.0196133209742779 0.2700639604080904 0.4003860981472011 1 42 24
0.5925972393314816 -0.2377285297158911 0.9323492915369581 255 231 197
0.2171643463620733 0.0205176228028220 0.3509032968511728 155 177 191
0.1727066910995001 0.0304413554452967 0.3443517890657827 136 189 220
0.0890025894696525 0.0479377678711013 0.3336784308377871 249 180 164
0.5069635556581424 -0.0389504417936234 0.3915337940491056 5 76 164
0.0652148718200404 0.0543426070475513 0.3302155738933112 154 65 85
0.5802820375989995 -0.2885799839771390 0.9270143574201987 140 112 75
0.5611505729667422 -0.3238769344334628 1.0138645103954060 137 59 46
0.5895726065330926 -0.2629930283659173 0.8731043383969332 141 119 82
0.6213743392882616 -0.2113315689339852 0.7511237365106119 109 78 83
0.5583512339760557 -0.0388351298659004 0.4024116835356303 170 171 215
0.5086670444296080 -0.4174290238162229 1.2505520028589132 222 182 172
-0.1256882711759999 0.1061055879183455 0.3092520626664430 129 93 97
0.3753101121708391 0.0090875189488407 0.3816913250941930 189 199 188
0.3229768350323713 0.0188210606375947 0.3764776268874333 250 255 235
0.5657490955027876 -0.3027976881384244 1.0100945087857800 205 203 208
0.4712728946705101 -0.0054790103426917 0.3984686263749041 170 183 191
-0.1317454677644234 0.1162898725958504 0.3098869419503486 8 59 88
0.5902653181742828 -0.2541232043682891 0.9055418963440225 255 247 191
0.5835068428679913 -0.2678863974031070 0.9369330640831495 183 158 138
0.1515936109366352 0.0628061023010612 0.3522459798787834 27 62 104
0.1456499955207178 0.0643866014215095 0.3523782235065659 25 67 107
0.3100446658744804 0.0337249239715594 0.3767684304571929 219 201 199
0.4041624989622931 0.0197493224592019 0.3923071344015367 22 71 111
0.5216639517894012 -0.3759160808790373 1.2173318859304989 166 154 132
0.5421532114257629 -0.3372032219311139 1.1339424801660074 141 127 176
0.5107018511066533 -0.3957725070234623 1.2657391768678745 224 200 216
-0.1225674219039512 0.1294123715132859 0.3213429511238730 7 62 82
0.6185997501020895 -0.0070830666156552 0.4322831630532040 19 84 122
0.5427574203523723 -0.3328700577114543 1.1343318137568883 15 41 76
0.5511449428181940 -0.3157395636433157 1.0966280696838253 117 115 188
-0.0081820878032941 0.1168654621653574 0.3404611792677513 127 123 146
0.1413640317867613 0.0934826181153942 0.3642032541217403 39 103 87
0.5289484604809895 -0.3524111482931472 1.2009973987776705 149 152 193
0.5325664406773035 -0.3455648894989476 1.1852156049908738 150 144 188
0.5557369877964945 -0.2995962388843359 1.0864931880181221 10 47 63
0.5667940073941784 -0.2790920520571962 1.0416009340009762 131 85 132
-0.0957864898725863 0.1407882492969814 0.3309240158175346 161 157 180
0.0271491212586471 0.1207968737115430 0.3491432783322385 202 186 137
0.5602139821787697 -0.2863146417444175 1.0737773040231979 207 205 193
0.5774343288556220 -0.2500763703995091 1.0031805507149290 217 175 27
-0.1185914570810968 0.1490617978274521 0.3292878994625726 49 46 29
0.5732056277520128 -0.2577647934896941 1.0212225620442039 61 76 45
-0.0976752048643545 0.1458547158138370 0.3334912110305705 12 46 74
0.5717465071233968 -0.2603951616895128 1.0287178611497889 64 63 35
0.2675874357447934 0.0878821636551546 0.3898604494184805 41 53 53
0.5891312815014615 -0.2233610485143698 0.9603754238697614 109 89 28
0.7066749697036384 0.0152227202706042 0.4670834966915728 53 76 170
0.5698514410032369 -0.2558284371383885 1.0487646012078340 186 190 199
0.4936983264244875 0.0646794293991080 0.4320030501960945 118 99 92
0.2281672960588331 0.1069511497656191 0.3899732920276760 50 69 50
-0.1428010552171266 0.1697478879823546 0.3325134821178853 6 62 79
0.5394239322050826 -0.3120674973403221 1.1798974650973144 182 165 158
0.5416430139444054 -0.3088231554598668 1.1759501555525596 12 37 41
0.5604255241198354 -0.2694282397785796 1.0973191675435678 193 192 208
0.5383051936497923 -0.3146871024462761 1.1925349971467656 115 78 62
0.5581134895161760 -0.2722180916937962 1.1073829991710860 176 182 198
0.5738239292508639 -0.2389421270859808 1.0383131369277894 52 56 23
0.5931752798788803 -0.2030714308177003 0.9656292131662196 189 161 15
0.5599781385438843 -0.2696568895927566 1.1028072037263967 104 101 120
0.5526276138675419 -0.2832091403198073 1.1327401599715183 164 142 129
0.5825794503116257 -0.2239402872245063 1.0115064823887703 179 163 86
0.5824255061126687 -0.2238668652953836 1.0116185565514808 181 162 94
0.5408017630946762 -0.3063771172335271 1.1822133942467605 179 165 152
0.5686874014682859 -0.2482106624672436 1.0664840420766299 47 57 22
0.5857299422000078 -0.2140602236374066 0.9959401415103490 251 239 93
0.5595246244772343 -0.2642766270011939 1.1053235400348018 108 106 120
0.5531080843323928 -0.2756798375460754 1.1343910209530801 173 136 128
0.5433195822453066 -0.2948952543857226 1.1748059417904351 0 41 37
0.5412084214572396 -0.3021063014817587 1.1907264255944889 212 196 173
0.5739237530372742 -0.2321825965801320 1.0513097933927764 89 70 4
0.5956958586272685 -0.1884427828929290 0.9644405884159211 80 77 34
0.5565794280361219 -0.2698383210376445 1.1303031795424627 242 211 128
0.5578050787774385 -0.2644280443283545 1.1240221612657133 132 101 70
0.3242049252203046 0.1195608781460267 0.4160065261699085 59 73 84
-0.0032189110277131 0.1677141528275524 0.3629025051863239 34 65 85
0.5610343391248001 -0.2544622222765819 1.1124931385684920 111 93 105
0.5525617116503485 -0.2757603183765145 1.1572732175405440 41 53 77
-0.1618934782776377 0.1932733177047174 0.3375168910868968 207 193 180
0.5376870964126674 -0.3013900177223974 1.2102136823454563 106 95 31
0.5633722945641908 -0.2482830669230220 1.1059733978002855 204 195 164
0.5298944493874150 0.0942875903431026 0.4534172876218763 69 118 159
0.5486631125366717 -0.2777592134769292 1.1690514773339187 121 151 189
-0.2270752184079985 0.2065143235964845 0.3258248022340717 9 85 73
0.5617448419412892 -0.2488707199850693 1.1173746789323895 201 195 183
0.5899998756582778 -0.1887673857936095 1.0024673539560398 50 50 58
0.5490515231738633 -0.2743756530491098 1.1733045776294768 43 44 64
0.1370420629513038 0.1585788716635326 0.3914396097052696 39 63 49
0.5390218566904880 -0.2943239711313066 1.2171828650535581 105 76 60
0.5445841270900263 -0.2785205311771010 1.1957792042313875 177 151 136
0.5462685159723127 -0.2749240870013316 1.1904896532890523 76 69 51
0.5516197539325689 -0.2635310344121787 1.1689206526063094 1 40 39
0.5541097846700095 -0.2589549983852124 1.1608488275323772 33 61 39
-0.1860025899964103 0.2110594406869721 0.3400715801095933 89 81 60
0.5701999462227409 -0.2184881488253256 1.0930732681701223 86 60 1
0.5689420113821028 -0.2216249852139833 1.1011200508693046 110 72 36
0.5357175741832293 -0.2919687816960028 1.2376759935260337 127 133 97
0.5739018387295086 -0.2118094679090405 1.0858024938853539 254 233 126
0.5649155226826845 -0.2285126768084301 1.1206944259656884 93 88 56
0.0785810850072863 0.1839358451491104 0.3886774730525511 2 47 16
0.5393965760584192 -0.2839816717799454 1.2288347637428210 51 42 13
0.5690017922397018 -0.2201122564175990 1.1082851671271705 230 204 130
0.5377676293488972 -0.2854606001250858 1.2341507427559562 246 240 206
0.5581591933318888 -0.2410576971430060 1.1520498480311976 87 82 86
-0.1566815294859053 0.2175504725532396 0.3492314276969510 122 65 58
0.5163461130334028 -0.3294392128177785 1.3221029661941848 47 51 16
0.5451099681244307 -0.2681050140398923 1.2082662372676694 218 179 104
0.5548315959637286 -0.2467701434611088 1.1673617879707876 76 76 52
-0.1096146864301728 0.2125060870696292 0.3581751714444515 17 81 65
0.2486613194895775 0.1696575024001401 0.4213019056130793 77 118 184
0.5386328591126457 -0.2813423640593474 1.2405850653994630 217 194 118
0.5432769895812777 -0.2685479350132875 1.2218629828737175 104 62 12
0.5314603894293068 -0.2938802233943790 1.2714126759238060 219 180 141
-0.3345826529752466 0.2471635145336458 0.3189708781771048 46 51 45
-0.1587403003994398 0.2255812756555835 0.3520074676630248 15 49 32
0.5247594917316829 -0.3067711255661130 1.3003152114021947 217 176 132
0.5443111037083980 -0.2641286606290970 1.2217027331897954 231 202 158
0.5428911701724098 -0.2681817378740433 1.2323526193737180 252 243 168
0.5393594181849317 -0.2728330482711742 1.2427024601283021 177 175 178
-0.3091897501755589 0.2486448980187382 0.3266503511773344 34 63 41
0.5394390797924831 -0.2734060084888702 1.2488067268821130 74 65 34
0.5498332715079360 -0.2449806216806013 1.2095028814622546 158 135 155
-0.1745141802754254 0.2413291052844772 0.3557782469260087 71 137 159
-0.1960691765624068 0.2559160970537505 0.3568450610307839 57 106 146
-0.2138353127458167 0.2592995676534922 0.3549041643190347 69 113 140
0.6050775468350330 -0.0854796947659004 1.0483547659934362 77 96 129
0.5658156956315231 -0.1741525074282515 1.1977758313526907 8 57 54
0.5992892571905460 -0.0986184607063340 1.0715855621944288 2 26 30
0.5413400534890221 -0.2297572877805453 1.2926288301651818 129 121 158
0.5588148333444931 -0.1899200442697067 1.2270069632337746 108 111 94
0.5586030016618903 -0.1877183829104794 1.2326440437139796 37 47 48
0.0602898396602308 -0.0293651137470338 0.9475933650223788 15 17 32
-0.0248959269802114 0.2914340022666803 0.4109470260588843 3 39 53
-0.0248472429683682 0.2914132956663201 0.4109966581686836 1 39 40
0.5669856486834672 -0.1585645648008125 1.2118286857480365 17 23 47
0.5401142717459134 -0.2195334139230682 1.3161534146981522 21 41 32
0.5496006660649181 -0.1991109323208921 1.2839104042419474 133 129 120
0.5697850895782934 -0.1487009533298988 1.2086762150615760 31 64 145
0.5423234422974842 -0.2129115749880549 1.3220711090871138 175 165 130
0.5709562282030598 -0.1414517414984267 1.2118993110515357 9 55 107
0.5447530063432082 -0.2013309009063615 1.3094029478897840 29 50 53
0.5487225452000764 -0.1927449377964994 1.2950719540514599 143 145 196
0.5668973958756994 -0.1481024291606617 1.2307052415903201 130 117 137
0.5531153901919520 -0.1812858661310704 1.2838432047953932 79 82 125
0.5508354667146377 -0.1844414792083615 1.2936725937200733 166 168 216
0.5537741199157706 -0.1746040448245955 1.2868831185031360 56 47 90
0.5569456998999531 -0.1662120004723677 1.2821394813971665 16 30 56
0.5494190060019967 -0.1802938450213511 1.3073971240500555 70 114 161
0.5507125132736866 -0.1761258284390534 1.3023470044171384 20 50 102
0.5223484991321611 -0.2442029268875622 1.4124544544166338 26 29 20
0.5546282228552285 -0.1650614484604742 1.2951949953977289 3 32 88
0.5488527729232672 -0.1739431034522939 1.3215861243146942 173 205 204
0.5916100353193054 -0.0647889230306239 1.1758484292067728 83 95 121
0.5909759375652379 -0.0616519326671103 1.1848844175996931 79 87 123
-0.0189651261084279 -0.1146136530210631 1.1513918343135936 130 144 179
0.5762668825763726 -0.0967377359346942 1.2390763096593893 129 150 197
0.5813210016102349 -0.0847101894083233 1.2210803497737805 14 32 54
0.5725182281994129 -0.1054141052877085 1.2533740109122868 12 38 53
0.5676109030714889 -0.1098100190595518 1.2818903593618223 68 95 112
0.5580123546944595 -0.1010903317927730 1.3555350318100694 46 68 92
0.5629194021517934 -0.0908356629862930 1.3462394229407220 3 35 24
0.5179630242325345 -0.1036932625305019 1.3933217577799417 109 166 25
-0.1432192076713408 0.0520631831988645 0.9987137236641900 58 58 84
0.3499089297012041 -0.0413873463510372 1.3134958469813407 96 157 18
-0.2000236759563139 0.0537462800990481 1.0015043212188013 171 185 220
-0.2041684399156833 0.0566161142455935 1.0017880220459714 167 182 213
0.0281465701325122 -0.0493941130304737 1.2527301316242652 23 24 44
-0.0967434222426091 0.1117276618474772 1.0343567276797223 163 174 192
-0.1028562850498115 0.1212685221499785 1.0368817777014008 20 15 47
0.0988412141315757 -0.0041691230120922 1.3059238183427988 61 119 6
-0.1373736296131504 0.1205680008835093 1.1063515299237805 63 108 23
0.0039425376293367 -0.0295665581603147 1.3904172310785194 60 112 1
-0.1619824351033729 0.0709639092579514 1.2214377745899516 72 115 35
-0.0648477030706581 -0.0053719881619107 1.3578993718484498 104 148 27
-0.1408610225695873 0.0494050562217549 1.2609693489957985 77 115 30
0.0434904276706586 -0.1095032920240924 1.5509323076997463 72 141 14
-0.0884706556405735 -0.0499207599207996 1.4622066787505523 105 155 32
-0.2365736618475997 0.0276453897980720 1.3378274922543893 94 147 41
-0.3294000882493586 0.0851655386422490 1.2413457370395851 118 157 51
-0.2692098834228221 0.0291448618888349 1.3441488473514180 103 162 46
-0.2048627778449281 -0.0241317462031246 1.4413140070760224 103 151 41
-0.2256826942533418 -0.0097330530816715 1.4157669973559666 51 111 0
-0.2754755565168162 0.0122249562629114 1.3836813811704680 106 166 44
-0.2572979627753656 -0.0043052917907879 1.4136228532186617 54 108 10
-0.2808212071084988 0.0129294891040253 1.3828857089547824 105 160 41
-0.3310729341417387 0.0353807176697560 1.3496477697664988 103 159 52
-0.3971768916453827 0.0832726914177988 1.2660557517531121 85 136 44
-0.3280429429957263 0.0215854812681819 1.3789751035953750 62 116 4
-0.3913411678519022 0.0645738228977645 1.3051925552441408 109 164 60
0.0749648345061709 0.0512683064887845 0.3315046438634044 255 229 198
0.3083684736209570 0.0078207261635164 0.3657983108961428 66 84 148
-0.3031290406914846 0.1372219768701419 0.2815186748353611 189 193 166
-0.2656455425028943 0.1304820520270088 0.2867499139648991 64 98 146
0.5354282342022478 -0.3706599516221827 1.1312606536824834 131 110 127
-0.0983146104346502 0.0961968102871408 0.3110972065129476 78 51 84
-0.2505156412846530 0.1299135890729412 0.2907839378455957 190 203 211
-0.1397410640185864 0.1081692170841084 0.3057752281434265 139 106 97
-0.1320946894437607 0.1107542151185557 0.3101098036904479 149 123 124
-0.1439225601672493 0.1138193106966781 0.3078475400162559 249 228 173
-0.3151991614642253 0.1487657529216767 0.2822464288491249 86 67 113
-0.3201835200463909 0.1484619229441330 0.2832603428852284 243 236 254
-0.0862455432357109 0.1026649552757510 0.3164867342888559 236 207 203
-0.1199003378513381 0.1104978603949279 0.3117591811337250 220 204 205
-0.2615889857893203 0.1391822398832057 0.2915573895139126 142 112 74
-0.2124264222660770 0.1298702971275989 0.2995175350893674 96 72 94
-0.3089953757810365 0.1493443340704433 0.2853682114266654 229 189 216
-0.2933601659425821 0.1475519880820396 0.2892586890018092 232 190 174
-0.0937123724761929 0.1087890910551487 0.3185903446332626 194 176 166
-0.1800279096458426 0.1266586119853866 0.3081743736818828 237 226 198
-0.1639108538768386 0.1289765535189845 0.3084817058033882 42 44 65
0.5811082608525999 -0.2674916553799976 0.9524182957850914 142 118 132
-0.0905310938406314 0.1147440262835804 0.3213992568473732 10 47 66
-0.1064982286043577 0.1183547900603357 0.3181629685773428 21 63 87
0.5160940473968015 -0.0017929651328593 0.4109300471249419 140 131 134
0.3075757702480270 0.0419022051859731 0.3772644824530542 12 64 75
0.5064272952349997 0.0047827776013979 0.4081573462259939 28 76 114
-0.0833949020979775 0.1166080198101567 0.3228879859530658 94 133 164
-0.2277326220205450 0.1447252998653059 0.3014384166199858 144 87 96
-0.3265509939549643 0.1654371064697363 0.2877510950503911 247 246 228
-0.2556032346936971 0.1520283520020185 0.2992931083371747 103 133 167
-0.1707815126170704 0.1387864664133805 0.3128890892969369 77 71 81
-0.2801992410728511 0.1590782906075314 0.2977118259747062 246 210 224
-0.3027416835470579 0.1644322916335085 0.2929166359307259 249 218 172
-0.1421797177857473 0.1347179777363686 0.3178546256151510 142 164 203
-0.2177672286881591 0.1496074115768495 0.3055842977621768 239 196 153
-0.1172897834842061 0.1319330710395290 0.3214404956881972 213 223 215
-0.2489374340617510 0.1531647780114563 0.3070726949789268 40 51 79
-0.2286361802472393 0.1545446858383483 0.3063411266591506 62 81 98
-0.3085264750862625 0.1699785845597546 0.2930690790515157 153 142 110
0.1321778169526683 0.0940092407806367 0.3620927905898453 207 243 229
-0.2049123826866656 0.1549087897517887 0.3114678371406740 213 200 210
-0.3043905146103545 0.1739532466874165 0.2946755518352989 251 252 220
-0.2971911077323798 0.1715465667960791 0.2997774552877252 255 244 213
-0.1282415566653208 0.1425255687129885 0.3239915656884583 202 183 189
-0.2274398607430308 0.1626156847096435 0.3091545362759914 102 92 91
-0.1691380251137159 0.1528053938852600 0.3196964878831171 111 149 162
-0.3180989841775245 0.1834396848525592 0.2982700866585142 34 67 72
0.5149089383025556 -0.3756594239621678 1.2703360010920752 60 60 58
0.0890699111024163 0.1152451080344002 0.3622643456176063 182 167 160
-0.2031286318128517 0.1668740798574489 0.3173047537946907 245 199 201
-0.3265902835754307 0.1895205331295693 0.2979728591342253 50 87 116
-0.1039584664928499 0.1549683033751513 0.3349201174602995 78 97 140
-0.1755059770129489 0.1763475626263298 0.3273424647290497 173 163 172
-0.2240008814406188 0.1846352604777407 0.3180739346127189 117 140 184
-0.3094232160033111 0.1975365147315405 0.3070365015994491 125 121 171
-0.2965638094132726 0.1960734487757393 0.3094345460482037 22 53 107
-0.0700455159631634 0.1635270414528294 0.3446139937995167 6 75 116
-0.1816296384765573 0.1824339584059696 0.3283127629086993 130 106 94
-0.3039232475902380 0.2024035885404830 0.3082214012584472 92 102 151
0.2168552782247946 0.1242802938626212 0.3947765197036731 215 193 92
-0.1672409315991867 0.1845253368289192 0.3332901224879440 147 120 109
-0.2000250610452720 0.1921178243375860 0.3293216794527718 185 183 184
-0.3178118637980665 0.2139683747101702 0.3110447972410560 60 109 124
-0.1796440756154384 0.1948555834952747 0.3347570392962043 153 126 119
-0.3408537158437764 0.2196230006352305 0.3050130285208673 16 59 49
-0.1147435981105789 0.1865377004758001 0.3460503851756825 35 48 28
-0.0566372069313811 0.1827944414211435 0.3565975720094177 30 76 102
-0.0861770436812287 0.1865170735507934 0.3523594809633989 69 67 68
-0.3450182039458954 0.2219964177151490 0.3105112691096755 251 233 131
-0.1989352192616895 0.2025045866027237 0.3335842798740115 179 166 157
-0.2784593084982719 0.2143952814813869 0.3215918319307591 6 67 68
-0.1592339075192347 0.2000523364743847 0.3413196755455412 185 182 141
0.5553870721646158 -0.2603861832734988 1.1481575165933804 239 225 160
-0.1136080435689642 0.1960487539487998 0.3502234172626943 55 53 38
-0.1180299221980681 0.2021115533060849 0.3520807950392993 114 144 134
0.5988234223413137 -0.1625564847551166 0.9827681656732006 179 162 152
-0.1546223251618036 0.2073756291536584 0.3457152504779262 63 34 52
-0.1627008768204980 0.2099747521578851 0.3459209599309553 99 59 85
-0.1491742935721186 0.2099686157020851 0.3477762368210107 204 182 141
-0.3155821533820855 0.2319884591391592 0.3202125569663136 171 173 185
-0.3295845801100136 0.2335608197354653 0.3177632450681014 232 245 219
0.2331544541958058 0.1625162716912088 0.4146725408447652 68 155 183
-0.1718893951583572 0.2148999012280073 0.3454015735490178 211 231 172
-0.2792648453093539 0.2283750843615649 0.3265058665684208 105 166 167
-0.2488530601993681 0.2270278167703684 0.3329828712708996 10 72 57
-0.1980788404093207 0.2225115398790250 0.3421688790941843 107 160 164
-0.2709254440230121 0.2332157168709439 0.3300714626136030 138 190 144
-0.1468287641204834 0.2188693080099171 0.3527033925399238 212 207 177
0.5514057708019588 -0.2522135758879801 1.1858027451850983 86 70 47
-0.0999063482005191 0.2170761099125103 0.3625442091655123 36 67 62
-0.1415963250347404 0.2232304513102105 0.3544279261241812 32 85 77
-0.0216398970807758 0.2090553432111937 0.3769330585770816 58 67 48
-0.1704582261851681 0.2267467311019993 0.3503879147670392 19 52 43
-0.2366065218823114 0.2397631961490405 0.3386149692569907 175 212 161
-0.2122083235689181 0.2403400165316105 0.3396324244448384 215 233 173
-0.2537344889794951 0.2410937798882033 0.3376619478087370 216 236 183
-0.3436396121743484 0.2636087373299059 0.3255651451804006 42 44 57
-0.1806365378824466 0.2538840682038762 0.3609988623918628 6 64 86
-0.3497685831682155 0.2725162540166401 0.3299945380733920 30 46 61
-0.1601896071143732 0.2548046833829390 0.3647740540414715 227 245 231
-0.2377239649560009 0.2679120801081621 0.3491135062734066 45 97 136
-0.2474205030413086 0.2686037239958091 0.3505307609850806 38 101 136
-0.1457036329491441 0.2638071141484278 0.3713440327805360 28 90 103
-0.2255621954708922 0.2737846858364064 0.3582444467094273 18 103 132
-0.1870315741736954 0.2741341885284505 0.3655335466014751 5 31 56
-0.0972566548362209 0.2795827287460056 0.3895779164780439 68 162 200
-0.0973705225193835 0.2792783398295214 0.3897007076708279 53 152 207
0.5558132780934285 -0.1869607531896602 1.2507465372586706 171 142 110
0.5560275364403678 -0.1867793057555093 1.2508206353813547 160 134 117
-0.3508529265476757 0.3168235724851886 0.3458456217451154 114 113 153
0.0582830520483902 -0.0244147728199453 0.9502000771162270 166 166 194
-0.3074581162831913 0.3161369267399324 0.3578818456033537 227 221 173
-0.3235819458678921 0.3187909148668255 0.3536768955447275 136 124 160
-0.3309710226231650 0.3202510004270910 0.3537824078920517 140 133 174
-0.3251422527405123 0.3288783308483101 0.3582252496445381 106 103 120
-0.3445387727610072 0.3296177514255894 0.3568741624034268 40 45 67
-0.3282767340544268 0.3369595700322365 0.3637928036849957 16 38 62
-0.2311382987001827 0.3444642037836848 0.3867244042570920 27 74 94
-0.3194274732128990 0.3498958464650860 0.3683775201294756 181 149 108
0.5702055776523349 -0.1083089785179430 1.2590712797888259 103 121 193
-0.3223601701545682 0.3624504385940467 0.3748196296281289 21 29 16
0.0757021721297198 0.0241675620152441 0.9760995328687957 129 130 174
0.1086263806576160 0.3647442058212342 0.4952266983895670 192 198 194
0.4864527594797290 -0.0782743461519528 1.3494304630668505 130 192 49
0.5375241590589407 -0.1330540127792039 1.4575364921573917 100 165 47
-0.0672117710425657 -0.0553466462238624 1.1970566555964557 14 21 37
0.3380874582232624 -0.0596631574187237 1.3527988431734108 106 150 29
-0.1617247825740545 0.1333742737898182 1.0838709125299137 217 238 205
-0.0485830077334788 0.0367994753759776 1.2621471383218010 222 237 208
-0.0813230389702975 0.0223356064556852 1.3036109182121380 97 135 62
-0.0890750502347395 -0.0518986208229233 1.4667544500791208 107 162 34
-0.1145806354123984 -0.0370614506961220 1.4405987484205764 117 159 49
-0.1227253686690276 -0.0563478302444322 1.4866018352117643 95 134 55
-0.2598014915337764 -0.0017488753950403 1.4085795951068267 114 171 58
-0.3116767590767644 0.0350803274093045 1.3448743525195030 116 166 55
-0.3321443783810532 0.0493108856751615 1.3202927248671794 67 119 8
-0.2630637244150625 -0.0050224491959862 1.4171435200266798 116 169 63
-0.4232087916074446 0.1150199578676658 1.2058448266428987 169 191 145
-0.4271032869006629 0.1077146942041829 1.2223984983356955 175 206 164
-0.3228211703810454 0.0277387885126245 1.3643463613925098 56 112 1
-0.3252230046859869 0.0262363859901332 1.3677696072794132 112 168 57
-0.3571771889393129 0.0470843404778462 1.3320546789319816 114 161 55
-0.4278135247700288 0.0988836762171253 1.2412830849212597 62 102 29
-0.4323310201945707 0.0987446381365435 1.2430244505329393 135 155 127
-0.4318317052271511 0.0916209367854322 1.2587196274933259 62 99 22
-0.3610678706582255 0.0325489415212306 1.3655312112414122 115 169 58
-0.2730788115512162 0.1289519867667332 0.2838464621554808 119 151 200
-0.2518127701017230 0.1246708809749031 0.2888063237967030 7 60 100
-0.2794010094847658 0.1325640703680352 0.2848574450205226 47 76 118
0.0244058004308066 0.0726841012668263 0.3280810920763587 166 211 130
-0.1047810932081065 0.1021363819829312 0.3121295946801825 184 163 182
-0.0966515895184487 0.1031772171877799 0.3133116943367394 67 38 58
0.1171428320480355 0.0596193080639187 0.3437635786542417 239 202 193
-0.2666879070378025 0.1375304853396640 0.2894948761283881 201 167 157
-0.2446202514350576 0.1335063609720276 0.2945624592543484 121 95 80
-0.1108017484361161 0.1093490288787423 0.3118215630428232 63 78 117
-0.1864961010590153 0.1238037569531101 0.3024487368712745 77 68 89
-0.2734306629756322 0.1415982178322461 0.2918533811874934 131 95 47
-0.2732269755068972 0.1418023303763283 0.2911292258521621 130 104 55
-0.2504929775024775 0.1372005876381323 0.2949722979228346 205 172 137
-0.3238570571517693 0.1532162308165513 0.2840382868015665 129 109 121
-0.3144236459415116 0.1589091529452279 0.2919923179027927 169 120 113
-0.1798018226093174 0.1367741506410940 0.3100815554485681 214 193 198
-0.2416201691491980 0.1509364398901381 0.3015005590441847 219 154 136
-0.2670192435905292 0.1567449280749888 0.2988042336626286 46 75 93
-0.1092183340709180 0.1299216178829133 0.3211945905578021 16 62 95
-0.2044525049420560 0.1481922960034872 0.3094200136635038 75 58 103
-0.2247018540213519 0.1534291835445619 0.3074796022447806 74 98 126
-0.2659652389040268 0.1621784987850882 0.3007602565669557 210 226 225
0.2966771603485467 0.0597551213929820 0.3864590218114157 159 139 106
-0.0969825800067860 0.1350157804971894 0.3277142695795935 147 174 193
-0.1211211786399255 0.1393986015558939 0.3242701853157486 53 45 58
-0.2711260617770215 0.1695907940559158 0.3023946381500761 99 102 111
-0.3134410496882568 0.1773986175489979 0.2962067058546015 210 202 183
-0.2558357852042211 0.1679296688617050 0.3057183789680747 223 246 236
0.1942152056455653 0.0923524259205726 0.3741308558369477 42 91 131
-0.3038636211826230 0.1782501997626014 0.2991922769565745 134 72 77
-0.2230229228719046 0.1653891951244227 0.3127034410075863 198 174 170
-0.1026261683922131 0.1471979537985031 0.3310358121666531 20 66 99
-0.2144554999466375 0.1698104271664962 0.3163934388067655 244 179 151
-0.3092361585136406 0.1868843918019132 0.3008069977545981 191 192 178
-0.2575071839718516 0.1802650272048389 0.3116147681066163 26 54 75
0.5625624489571296 -0.2717774847601098 1.0742760409780765 194 166 162
-0.2345251284783061 0.1792722045217471 0.3135921346637596 45 81 107
-0.1183978345462623 0.1610298456472216 0.3337184707669674 11 41 77
-0.1567103354457117 0.1664953818459734 0.3275982293090517 24 73 88
-0.1796415487767332 0.1716128369836636 0.3250027580800784 0 77 69
-0.2872972660369816 0.1922612470581409 0.3084567217567397 41 35 73
0.5641198377864868 -0.2612807900347328 1.0781934199899632 200 178 167
-0.2062028998668332 0.1844985819354486 0.3241833491258563 139 122 96
-0.1169184576858130 0.1731900132892236 0.3397434468729909 18 46 57
-0.2798960265904948 0.1990126482327850 0.3143683333849788 27 64 90
0.5574690844538226 -0.2623060985809647 1.1153122148972565 208 194 121
-0.0999080029746433 0.1776720248161659 0.3449172958812497 160 105 85
-0.1740006129164837 0.1901036510118687 0.3337553022037629 202 181 152
-0.3237413164754082 0.2164044665640046 0.3111706826691713 55 62 72
-0.1302993501339896 0.1901242712996537 0.3438083706151316 36 73 82
-0.0182384979086933 0.1820339891024306 0.3658283166340300 255 246 103
-0.3250840111022221 0.2258665578216436 0.3147088967623114 63 65 64
-0.1984778381937737 0.2099673415149739 0.3362614599644957 163 156 146
-0.0054183475483188 0.1950772675121731 0.3672324871493383 255 244 98
-0.1787644034862806 0.2169107884958002 0.3425189411603828 201 224 178
-0.2177189006266680 0.2215284923088280 0.3368983344615689 220 248 173
-0.3365314300639082 0.2364704047827015 0.3173478452643135 35 38 7
-0.3104601320771248 0.2363862439039808 0.3200016525222817 27 43 33
-0.3235347283659148 0.2374473765401521 0.3187241708998763 52 64 44
0.5011462024189763 -0.3655697797660683 1.3874812193041386 97 85 85
-0.2633465462734927 0.2339267697147723 0.3323716979328706 22 72 47
-0.2467628561328325 0.2331939173926182 0.3354691593159337 238 255 187
-0.2322306884861503 0.2333620559864091 0.3355414635084896 14 79 59
-0.3087538864483380 0.2435410294520845 0.3249581858009954 175 190 151
-0.3000982935669038 0.2428561138157454 0.3280348234682707 213 217 180
-0.2715517308477033 0.2486180355849249 0.3361248087982287 7 51 34
0.6726122448276276 0.0333678031839750 0.7420890124650533 27 64 83
-0.0578694452462105 0.2426331560839016 0.3826161076514268 211 251 242
-0.1217033828545838 0.2526917836956070 0.3726288864215223 240 246 234
-0.0998916643648787 0.2513401847600792 0.3767063000879036 223 243 232
-0.1731447199871396 0.2603170492092424 0.3643990763689998 96 144 130
-0.1588675459576316 0.2626969956203441 0.3680908454003129 9 52 61
-0.0333444971470814 0.2519630619666125 0.3923912421251072 189 251 248
-0.1891049249968836 0.2675789470804493 0.3637398121034342 93 132 173
-0.2020296790781715 0.2763027169783941 0.3649814612131657 24 99 166
-0.1711294127896267 0.2753544374751515 0.3723088727204297 30 84 96
-0.3127975570767193 0.3278054146354856 0.3589452041207447 100 100 150
-0.3278468938099602 0.3438366888286670 0.3651566677045847 132 117 138
-0.3302276943019323 0.3511515348153256 0.3670473778841050 39 41 54
0.5784758491851679 -0.0861158982327576 1.2371051682639271 0 30 28
-0.2625810985320652 0.3690511455172777 0.3899477249516675 0 13 8
0.5382446409621490 -0.0358509175757150 1.2452616778938661 240 243 234
-0.3647278850750988 0.4559415534334723 0.4487576275022026 27 33 19
-0.1747036633263933 0.1070780831894047 1.0298335304357169 148 135 165
-0.1320847497699107 0.0429488636556022 1.2731647632971386 83 123 34
-0.1809367107306143 -0.0317574818057919 1.4505065460489066 114 176 49
-0.4376645024813188 0.1470764167023470 1.1395896840758930 55 93 20
-0.3915931207069492 0.1060872242347494 1.2150927138271634 43 98 0
-0.4359123097357208 0.1367208857067468 1.1606545760253801 162 173 156
-0.4272684639314983 0.0946439451131598 1.2503887081638267 98 147 55
-0.4582674720285312 0.1074523402333169 1.2323493047622434 67 99 24
0.5356418919222360 -0.3720246839441230 1.1217385743575692 227 198 128
0.1274938791407228 0.0415631166392284 0.3403903199107352 179 137 149
0.4806926772417457 -0.0280328805566872 0.3891224339005771 161 124 116
0.1418832187819667 0.0439347488696704 0.3442539544091366 1 77 129
0.2611740081570276 0.0229816036501309 0.3599329957272595 28 79 142
0.6123231111006991 -0.0235754681615177 0.4199815903349544 8 87 146
-0.3012588412974678 0.1582066624981112 0.2903754202649725 137 63 50
-0.1590218536650357 0.1488521550081249 0.3185005108688698 7 81 108
-0.1325929417042648 0.1655492469746287 0.3338880592368457 22 72 81
0.5323938354604038 0.0580089119268762 0.4455023019461829 10 58 68
0.0652098263975804 0.1388213381316581 0.3650099066970818 30 72 88
